ply
format ascii 1.0
comment pointcloud saved from Realsense Viewer
element vertex 2563
property float32 x
property float32 y
property float32 z
property uchar red
property uchar green
property uchar blue
end_header
241 0 0 
-0.828613 2.20508 -4.59375 
240 0 0 
-0.808594 2.21094 -4.60156 
238 0 0 
-0.789551 2.21484 -4.61328 
237 0 0 
-0.770508 2.22266 -4.62891 
235 0 0 
-0.750977 2.22852 -4.64453 
233 0 0 
-0.731445 2.23633 -4.65625 
231 0 0 
-0.711914 2.24219 -4.66797 
229 0 0 
-0.691895 2.24609 -4.67969 
227 0 0 
-0.671387 2.25195 -4.6875 
225 0 0 
-0.651367 2.25586 -4.69922 
223 0 0 
-0.630859 2.26172 -4.71094 
221 0 0 
-0.61084 2.26953 -4.72656 
218 0 0 
-0.591309 2.2793 -4.74609 
215 0 0 
-0.572266 2.29102 -4.76953 
212 0 0 
-0.552734 2.30273 -4.79297 
206 0 0 
-0.533691 2.31445 -4.82031 
206 0 0 
-0.513672 2.32812 -4.84766 
203 0 0 
-0.493896 2.33984 -4.875 
200 0 0 
-0.473633 2.35156 -4.89453 
197 0 0 
-0.452881 2.36133 -4.91797 
195 0 0 
-0.431885 2.37109 -4.94141 
192 0 0 
-0.411133 2.38477 -4.96484 
189 0 0 
-0.390137 2.39648 -4.99219 
186 0 0 
-0.368896 2.41016 -5.01953 
183 0 0 
-0.347412 2.42383 -5.04688 
179 0 0 
-0.325684 2.4375 -5.07422 
176 0 0 
-0.303711 2.44922 -5.10156 
173 0 0 
-0.28125 2.45898 -5.12109 
169 0 0 
-0.258545 2.4707 -5.14453 
166 0 0 
-0.235718 2.48047 -5.16797 
162 0 0 
-0.212769 2.49219 -5.19141 
158 0 0 
-0.189453 2.50391 -5.21484 
155 0 0 
-0.165771 2.51367 -5.23438 
152 0 0 
-0.14209 2.52344 -5.25391 
148 0 0 
-0.11792 2.5293 -5.26953 
146 0 0 
-0.093811 2.53906 -5.28906 
143 0 0 
-0.0695801 2.55078 -5.3125 
140 0 0 
-0.0450745 2.56055 -5.33203 
138 0 0 
-0.0203552 2.56836 -5.35156 
136 0 0 
0.00452042 2.58594 -5.38281 
131 0 0 
0.0297241 2.60156 -5.41797 
128 0 0 
0.0551758 2.61523 -5.44922 
124 0 0 
0.0809937 2.63281 -5.48438 
119 0 0 
0.10675 2.63867 -5.49609 
120 0 0 
0.130859 2.61133 -5.4375 
123 0 0 
0.156006 2.60938 -5.43359 
123 0 0 
0.18103 2.60547 -5.42578 
125 0 0 
0.205444 2.5957 -5.40625 
128 0 0 
0.229736 2.58594 -5.38672 
131 0 0 
0.256592 2.60547 -5.42578 
131 0 0 
0.279053 2.58008 -5.375 
133 0 0 
0.301025 2.55469 -5.32031 
140 0 0 
0.323975 2.54102 -5.29297 
144 0 0 
0.346191 2.52148 -5.25391 
150 0 0 
0.367676 2.50391 -5.21484 
156 0 0 
0.38916 2.48438 -5.17578 
161 0 0 
0.410156 2.4668 -5.14062 
165 0 0 
0.430908 2.44922 -5.10156 
170 0 0 
0.451416 2.43164 -5.06641 
175 0 0 
0.471436 2.41406 -5.02734 
180 0 0 
0.491211 2.39648 -4.99219 
185 0 0 
0.510742 2.38086 -4.96094 
190 0 0 
0.53125 2.36914 -4.93359 
194 0 0 
0.552734 2.36328 -4.92188 
196 0 0 
0.575195 2.36133 -4.91797 
197 0 0 
0.599121 2.36523 -4.92578 
196 0 0 
0.624512 2.37305 -4.94531 
194 0 0 
0.649902 2.38281 -4.96094 
190 0 0 
0.674316 2.38867 -4.97266 
190 0 0 
0.697754 2.39062 -4.97656 
189 0 0 
0.720215 2.38672 -4.97266 
190 0 0 
0.741699 2.38086 -4.96094 
191 0 0 
0.762207 2.375 -4.94531 
193 0 0 
0.783203 2.36719 -4.93359 
194 0 0 
0.804688 2.36523 -4.92578 
195 0 0 
0.827148 2.36328 -4.92188 
196 0 0 
0.850586 2.36328 -4.92188 
196 0 0 
0.873535 2.36523 -4.92578 
196 0 0 
0.89502 2.36133 -4.91797 
197 0 0 
0.913574 2.34961 -4.89453 
200 0 0 
0.927734 2.32812 -4.85156 
207 0 0 
0.9375 2.29688 -4.78516 
215 0 0 
0.944336 2.25977 -4.70703 
226 0 0 
0.948242 2.21875 -4.62109 
237 0 0 
0.952148 2.17773 -4.53516 
249 0 0 
0.958008 2.14453 -4.46484 
254 5 0 
0.966797 2.11719 -4.41016 
254 15 0 
0.978516 2.09961 -4.37109 
254 21 0 
0.992188 2.08398 -4.34375 
254 26 0 
1.00684 2.07422 -4.32031 
254 30 0 
1.02344 2.06641 -4.30469 
254 33 0 
1.04004 2.06055 -4.28906 
254 36 0 
1.05762 2.05469 -4.28125 
254 37 0 
1.07617 2.05273 -4.27734 
254 38 0 
1.09668 2.05469 -4.27734 
254 38 0 
1.12012 2.06055 -4.29297 
254 36 0 
1.14648 2.07227 -4.31641 
254 31 0 
1.17773 2.0918 -4.35547 
254 24 0 
1.21289 2.11914 -4.41406 
254 14 0 
1.25391 2.15234 -4.48438 
254 2 0 
1.29688 2.18945 -4.5625 
245 0 0 
1.33887 2.22656 -4.63672 
235 0 0 
1.37793 2.25391 -4.69531 
227 0 0 
1.41309 2.27539 -4.73828 
221 0 0 
1.44336 2.28906 -4.76953 
217 0 0 
1.47266 2.29883 -4.78906 
214 0 0 
1.5 2.30664 -4.80469 
212 0 0 
1.52637 2.31445 -4.82031 
210 0 0 
1.55273 2.32031 -4.83203 
208 0 0 
1.58008 2.32617 -4.84375 
206 0 0 
1.6084 2.33398 -4.86328 
204 0 0 
1.64062 2.34961 -4.89062 
200 0 0 
1.67871 2.36914 -4.9375 
194 0 0 
1.72168 2.39844 -4.99609 
185 0 0 
1.76953 2.43164 -5.06641 
176 0 0 
1.81641 2.46484 -5.13281 
167 0 0 
1.8584 2.48828 -5.17969 
159 0 0 
1.89453 2.50391 -5.21484 
155 0 0 
1.92773 2.51562 -5.24219 
152 0 0 
1.96191 2.5293 -5.26562 
148 0 0 
1.99805 2.54297 -5.29688 
141 0 0 
2.03516 2.55859 -5.32812 
141 0 0 
2.07031 2.57227 -5.35547 
137 0 0 
2.09961 2.57812 -5.36719 
136 0 0 
2.12109 2.57422 -5.35938 
137 0 0 
2.13281 2.55859 -5.32812 
142 0 0 
2.13086 2.52539 -5.26172 
151 0 0 
2.11328 2.47656 -5.16016 
165 0 0 
2.08008 2.41016 -5.01953 
184 0 0 
2.03516 2.33203 -4.85547 
206 0 0 
1.98633 2.25195 -4.6875 
228 0 0 
1.94043 2.17578 -4.53125 
250 0 0 
1.90039 2.10742 -4.39062 
254 18 0 
1.86719 2.04883 -4.26953 
254 39 0 
1.8418 2 -4.16406 
254 56 0 
1.82129 1.95703 -4.07422 
254 71 0 
1.80762 1.92285 -4.00391 
254 84 0 
1.7998 1.89453 -3.94531 
254 94 0 
1.79492 1.87109 -3.89648 
254 102 0 
1.79492 1.85156 -3.85547 
254 109 0 
1.79688 1.83594 -3.82227 
254 115 0 
1.80176 1.82227 -3.79492 
254 119 0 
1.81055 1.81348 -3.77734 
254 123 0 
1.82227 1.80762 -3.76562 
254 125 0 
1.83594 1.80371 -3.75586 
254 126 0 
1.85059 1.80176 -3.75195 
254 127 0 
1.86719 1.80078 -3.75 
254 127 0 
1.88477 1.80078 -3.75 
254 127 0 
1.90332 1.80176 -3.75195 
254 126 0 
1.92188 1.80273 -3.75586 
254 126 0 
1.94336 1.80566 -3.76172 
254 124 0 
1.96484 1.81055 -3.77148 
254 123 0 
1.98926 1.81641 -3.7832 
254 120 0 
2.01562 1.82422 -3.80078 
254 118 0 
2.04297 1.83398 -3.81836 
254 114 0 
2.07227 1.84277 -3.83984 
254 111 0 
2.09961 1.85254 -3.85938 
254 107 0 
2.12891 1.8623 -3.87891 
254 104 0 
2.1582 1.87109 -3.89648 
254 101 0 
2.18555 1.87988 -3.91602 
254 98 0 
2.21484 1.88867 -3.93359 
254 95 0 
2.24219 1.89648 -3.94922 
254 92 0 
2.26562 1.90137 -3.95898 
254 90 0 
2.28516 1.90234 -3.96289 
254 89 0 
2.30078 1.89941 -3.95703 
254 90 0 
2.31055 1.89355 -3.94336 
254 92 0 
2.31836 1.88477 -3.92578 
254 95 0 
2.32422 1.87402 -3.90234 
254 99 0 
2.32422 1.86035 -3.875 
254 104 0 
2.32422 1.84473 -3.84375 
254 109 0 
2.32031 1.82812 -3.80859 
254 116 0 
2.31641 1.81152 -3.77344 
254 122 0 
2.31445 1.79688 -3.74219 
254 127 0 
2.3125 1.78125 -3.71094 
254 136 0 
2.31836 1.77246 -3.69336 
254 136 0 
2.33984 1.77637 -3.69922 
254 133 0 
2.36523 1.78223 -3.71094 
254 133 0 
1.21973 0.880859 -1.83496 
57 254 197 
1.22656 0.879395 -1.83203 
56 254 198 
1.2334 0.87793 -1.8291 
56 254 198 
1.24023 0.876953 -1.82617 
56 254 198 
1.24707 0.875977 -1.82422 
55 254 199 
1.25488 0.875488 -1.82324 
55 254 199 
1.26367 0.875488 -1.82324 
55 254 199 
1.27246 0.875977 -1.82422 
55 254 199 
1.2832 0.876953 -1.82617 
55 254 199 
1.29395 0.878906 -1.83105 
56 254 198 
1.30566 0.880859 -1.83496 
56 254 198 
1.31738 0.883301 -1.83984 
57 254 197 
1.33008 0.885742 -1.84473 
58 254 196 
1.3418 0.888184 -1.84961 
58 254 196 
1.35449 0.890625 -1.85449 
59 254 195 
1.36621 0.893066 -1.85938 
60 254 194 
1.37793 0.89502 -1.86426 
61 254 193 
1.38867 0.895996 -1.86621 
62 254 192 
1.39648 0.895508 -1.86523 
62 254 192 
1.40137 0.893555 -1.86035 
61 254 193 
1.40625 0.890625 -1.85449 
60 254 194 
1.40723 0.88623 -1.8457 
59 254 195 
1.40918 0.881836 -1.83691 
57 254 197 
1.40918 0.876465 -1.8252 
55 254 199 
1.4082 0.870605 -1.81348 
53 254 201 
1.40625 0.864258 -1.80078 
51 254 203 
1.4043 0.858398 -1.78711 
49 254 205 
1.40234 0.852051 -1.77441 
47 254 207 
1.40234 0.84668 -1.76367 
45 254 209 
1.40332 0.842285 -1.75391 
43 254 211 
1.40527 0.838379 -1.74609 
42 254 212 
1.40723 0.834961 -1.73926 
41 254 213 
1.40918 0.831055 -1.73145 
39 254 215 
1.41113 0.827637 -1.72461 
38 254 216 
1.41211 0.82373 -1.71484 
37 254 217 
1.41309 0.819824 -1.70703 
35 254 219 
1.41309 0.81543 -1.69824 
33 254 221 
1.41504 0.811523 -1.69043 
32 254 222 
1.41602 0.807617 -1.68164 
30 254 224 
1.41699 0.803711 -1.67383 
29 254 225 
1.41797 0.799805 -1.66602 
27 254 227 
1.41797 0.79541 -1.65723 
26 254 228 
1.41699 0.790527 -1.64648 
24 254 230 
1.41602 0.786133 -1.63672 
22 254 232 
1.41406 0.780762 -1.62598 
19 254 235 
1.41113 0.775391 -1.61523 
19 254 235 
1.40918 0.77002 -1.60352 
17 254 237 
1.4082 0.765137 -1.59375 
15 254 239 
1.40723 0.760742 -1.58496 
14 254 240 
1.4082 0.757324 -1.57812 
13 254 241 
1.41113 0.754883 -1.57227 
12 254 242 
1.41504 0.75293 -1.56836 
11 254 243 
1.41992 0.751465 -1.56543 
11 254 243 
1.4248 0.750977 -1.56348 
11 254 243 
1.43066 0.75 -1.56152 
11 254 243 
1.4375 0.75 -1.56152 
10 254 244 
1.44434 0.749512 -1.56055 
10 254 244 
1.4502 0.749023 -1.55957 
10 254 244 
1.45801 0.749023 -1.55957 
10 254 244 
1.46387 0.748535 -1.55859 
10 254 244 
1.46973 0.748047 -1.55762 
10 254 244 
1.47559 0.74707 -1.55566 
9 254 245 
1.48047 0.746094 -1.55371 
9 254 245 
1.48633 0.745117 -1.55176 
9 254 245 
1.49121 0.744141 -1.5498 
8 254 246 
1.49707 0.743164 -1.54785 
8 254 246 
1.50195 0.742188 -1.5459 
7 254 247 
1.50684 0.741211 -1.54395 
7 254 247 
1.5127 0.740234 -1.54199 
7 254 247 
1.51855 0.739746 -1.54102 
6 254 248 
1.52441 0.739258 -1.53906 
6 254 248 
-1.8584 0.966309 -2.03125 
89 254 165 
-1.83008 0.956543 -2.01172 
87 254 167 
-1.82324 0.958008 -2.01367 
87 254 167 
-1.81055 0.956543 -2.01172 
87 254 167 
-1.80176 0.956543 -2.01172 
87 254 167 
-1.7959 0.958496 -2.01562 
87 254 167 
-1.79004 0.959961 -2.01953 
88 254 166 
-1.78516 0.962402 -2.02344 
89 254 165 
-1.78125 0.965332 -2.0293 
91 254 163 
-1.77734 0.96875 -2.03711 
92 254 161 
-1.77441 0.972168 -2.04492 
94 254 160 
-1.77051 0.975586 -2.05078 
95 254 159 
-1.76758 0.979004 -2.05859 
97 254 157 
-1.76465 0.982422 -2.06641 
99 254 155 
-1.76074 0.98584 -2.07227 
99 254 155 
-1.75781 0.989746 -2.08203 
100 254 154 
-1.75488 0.993652 -2.08984 
101 254 153 
-1.75195 0.997559 -2.09766 
102 254 152 
-1.74902 1.00098 -2.10547 
103 254 151 
-1.74609 1.00488 -2.11328 
104 254 150 
-1.74316 1.00879 -2.12305 
106 254 148 
-1.74219 1.01367 -2.13281 
107 254 147 
-1.74023 1.01855 -2.14258 
109 254 145 
-1.73926 1.02344 -2.1543 
111 254 143 
-1.73828 1.0293 -2.16406 
112 254 141 
-1.7373 1.03516 -2.17578 
115 254 139 
-1.73633 1.04004 -2.1875 
116 254 138 
-1.73438 1.04492 -2.19922 
118 254 136 
-1.7334 1.05078 -2.20898 
120 254 134 
-1.73047 1.05566 -2.21875 
121 254 133 
-1.72852 1.06055 -2.23047 
123 254 131 
-1.72559 1.06543 -2.24023 
124 254 130 
-1.72363 1.07031 -2.25 
126 254 128 
-1.72168 1.0752 -2.26172 
127 254 127 
-1.71973 1.08105 -2.27344 
129 254 125 
-1.71973 1.08691 -2.28711 
131 254 123 
-1.71973 1.09375 -2.30078 
132 254 122 
-1.71875 1.10059 -2.31445 
134 254 120 
-1.71875 1.10742 -2.33008 
136 254 118 
-1.71777 1.11328 -2.3418 
138 254 116 
-1.71582 1.12012 -2.35547 
140 254 114 
-1.71484 1.12598 -2.36914 
143 254 111 
-1.71191 1.13184 -2.38086 
145 254 109 
-1.70996 1.1377 -2.39258 
148 254 106 
-1.70801 1.14355 -2.40625 
150 254 104 
-1.70703 1.15039 -2.41992 
152 254 102 
-1.70508 1.15723 -2.43359 
155 254 99 
-1.7041 1.16406 -2.44922 
158 254 96 
-1.70312 1.17188 -2.46289 
161 254 93 
-1.70117 1.17773 -2.47656 
164 254 90 
-1.69727 1.18359 -2.48828 
166 254 88 
-1.69434 1.18945 -2.5 
168 254 86 
-1.69043 1.19434 -2.51367 
170 254 84 
-1.68555 1.19922 -2.52344 
171 254 83 
-1.68066 1.2041 -2.5332 
173 254 81 
-1.67578 1.20898 -2.54297 
174 254 80 
-1.6709 1.21484 -2.55469 
176 254 79 
-1.66602 1.21973 -2.56445 
178 254 76 
-1.66211 1.22559 -2.57617 
180 254 74 
-1.6582 1.23145 -2.58984 
183 254 71 
-1.65527 1.23828 -2.60352 
186 254 68 
-1.65234 1.24512 -2.61914 
189 254 65 
-1.64844 1.25195 -2.63281 
192 254 62 
-1.64551 1.25879 -2.64648 
196 254 58 
-1.64453 1.2666 -2.66406 
199 254 55 
-1.64453 1.27734 -2.68555 
203 254 51 
-1.64648 1.28809 -2.70898 
211 254 43 
-1.65039 1.30078 -2.73633 
211 254 43 
-1.6543 1.31445 -2.76562 
216 254 38 
-1.6582 1.32812 -2.79297 
220 254 34 
-1.66113 1.34082 -2.81836 
224 254 29 
-1.66211 1.35254 -2.84375 
228 254 26 
-1.66309 1.36426 -2.86914 
232 254 22 
-1.66211 1.37402 -2.89062 
236 254 18 
-1.66016 1.38379 -2.91016 
240 254 14 
-1.6582 1.39355 -2.92969 
244 254 10 
-1.65527 1.40234 -2.94922 
247 254 7 
-1.65137 1.41016 -2.9668 
250 254 4 
-1.64648 1.41895 -2.98438 
252 254 2 
-1.64258 1.42676 -3 
254 254 0 
-1.63672 1.43359 -3.01562 
254 251 0 
-1.63184 1.44238 -3.0332 
254 249 0 
-1.62793 1.45117 -3.05273 
254 246 0 
-1.625 1.46191 -3.07422 
254 243 0 
-1.62402 1.47266 -3.09766 
254 239 0 
-1.62305 1.48535 -3.125 
254 234 0 
-1.62207 1.49805 -3.15039 
254 229 0 
-1.62109 1.51074 -3.17773 
254 224 0 
-1.61816 1.52246 -3.20117 
254 220 0 
-1.61523 1.5332 -3.22461 
254 216 0 
-1.6123 1.54492 -3.24805 
254 212 0 
-1.61035 1.55762 -3.27539 
254 207 0 
-1.60938 1.57227 -3.30664 
254 202 0 
-1.61035 1.58691 -3.33789 
254 197 0 
-1.60938 1.60156 -3.36914 
254 191 0 
-1.60742 1.61621 -3.39844 
254 186 0 
-1.60352 1.62793 -3.42383 
254 182 0 
-1.59863 1.63965 -3.44727 
254 178 0 
-1.5918 1.64844 -3.4668 
254 175 0 
-1.58398 1.65723 -3.48633 
254 171 0 
-1.57617 1.66602 -3.50391 
254 168 0 
-1.56738 1.67383 -3.52148 
254 166 0 
-1.55859 1.68262 -3.53906 
254 163 0 
-1.55078 1.69141 -3.55859 
254 159 0 
-1.54199 1.70117 -3.57617 
254 157 0 
-1.5332 1.70898 -3.5957 
254 153 0 
-1.52441 1.71777 -3.61328 
254 150 0 
-1.51465 1.72656 -3.63086 
254 147 0 
-1.50391 1.7334 -3.64648 
254 145 0 
-1.49316 1.74121 -3.66211 
254 142 0 
-1.48242 1.74805 -3.67578 
254 140 0 
-1.47168 1.75488 -3.69141 
254 137 0 
-1.45996 1.7627 -3.70703 
254 134 0 
-1.44824 1.76953 -3.7207 
254 132 0 
-1.4375 1.77637 -3.73633 
254 129 0 
-1.42578 1.78418 -3.75195 
254 126 0 
-1.41406 1.79102 -3.76758 
254 123 0 
-1.40332 1.79883 -3.7832 
254 121 0 
-1.3916 1.80762 -3.80078 
254 118 0 
-1.37988 1.81543 -3.81836 
254 112 0 
-1.36816 1.82324 -3.83594 
254 112 0 
-1.35742 1.83301 -3.85352 
254 109 0 
-1.3457 1.84082 -3.87305 
254 105 0 
-1.33398 1.85059 -3.89062 
254 102 0 
-1.32324 1.85938 -3.91211 
254 99 0 
-1.31152 1.86914 -3.93164 
254 96 0 
-1.2998 1.87793 -3.95117 
254 92 0 
-1.28809 1.8877 -3.9707 
254 89 0 
-1.27539 1.89746 -3.99023 
254 86 0 
-1.26367 1.90723 -4.00781 
254 82 0 
-1.25098 1.91699 -4.03125 
254 79 0 
-1.23828 1.92578 -4.05078 
254 76 0 
-1.22461 1.93359 -4.06641 
254 73 0 
-1.20996 1.94141 -4.08203 
254 71 0 
-1.19531 1.94824 -4.09766 
254 68 0 
-1.18066 1.95508 -4.10938 
254 66 0 
-1.16504 1.96094 -4.125 
254 64 0 
-1.15039 1.96777 -4.13672 
254 62 0 
-1.13477 1.97559 -4.15234 
254 59 0 
-1.12012 1.9834 -4.17188 
254 56 0 
-1.10645 1.99316 -4.19141 
254 53 0 
-1.09277 2.00391 -4.21484 
254 49 0 
-1.0791 2.01562 -4.23828 
254 45 0 
-1.06543 2.02539 -4.26172 
254 41 0 
-1.05176 2.03711 -4.28516 
254 37 0 
-1.03711 2.04688 -4.30859 
254 33 0 
-1.02148 2.05664 -4.32422 
254 29 0 
-1.00488 2.06445 -4.34375 
254 27 0 
-0.987793 2.07031 -4.35547 
254 24 0 
-0.969727 2.07617 -4.36328 
254 22 0 
-0.95166 2.08008 -4.375 
254 21 0 
-0.932617 2.08398 -4.38281 
254 20 0 
-0.913574 2.08594 -4.38672 
254 19 0 
-0.894531 2.08984 -4.39453 
254 17 0 
-0.875488 2.0918 -4.39844 
254 16 0 
-0.856445 2.0957 -4.40625 
254 15 0 
-0.837402 2.09961 -4.41406 
254 13 0 
-0.817871 2.10156 -4.42188 
254 12 0 
-0.79834 2.10547 -4.42578 
254 11 0 
-0.779297 2.10938 -4.43359 
254 10 0 
-0.760254 2.11328 -4.44531 
254 8 0 
-0.741699 2.11914 -4.45703 
254 6 0 
-0.722656 2.125 -4.46875 
254 4 0 
-0.704102 2.13086 -4.48047 
254 2 0 
-0.685059 2.13672 -4.49219 
254 0 0 
-0.665527 2.14062 -4.50391 
252 0 0 
-0.646484 2.14648 -4.51562 
250 0 0 
-0.626953 2.15234 -4.52734 
248 0 0 
-0.60791 2.1582 -4.53906 
245 0 0 
-0.588867 2.16797 -4.55859 
242 0 0 
-0.570312 2.17773 -4.57812 
239 0 0 
-0.552246 2.18945 -4.60547 
235 0 0 
-0.53418 2.20312 -4.63281 
228 0 0 
-0.515625 2.2168 -4.66016 
228 0 0 
-0.49707 2.23047 -4.6875 
225 0 0 
-0.478027 2.24219 -4.71484 
222 0 0 
-0.458496 2.25391 -4.73828 
219 0 0 
-0.438477 2.26367 -4.76172 
216 0 0 
-0.418213 2.27344 -4.78125 
214 0 0 
-0.397705 2.28516 -4.80469 
211 0 0 
-0.377197 2.29492 -4.82812 
208 0 0 
-0.356445 2.30664 -4.85156 
205 0 0 
-0.335693 2.31836 -4.875 
203 0 0 
-0.314453 2.32812 -4.89844 
199 0 0 
-0.292969 2.33984 -4.92188 
197 0 0 
-0.27124 2.34961 -4.94141 
194 0 0 
-0.24939 2.35938 -4.96094 
191 0 0 
-0.227295 2.36914 -4.98438 
187 0 0 
-0.204956 2.37891 -5.00391 
184 0 0 
-0.182495 2.38867 -5.02344 
181 0 0 
-0.15979 2.39844 -5.04297 
177 0 0 
-0.136963 2.4082 -5.06641 
174 0 0 
-0.113892 2.41797 -5.08594 
171 0 0 
-0.0906372 2.42969 -5.10938 
168 0 0 
-0.0672607 2.44336 -5.13672 
164 0 0 
-0.0436401 2.45508 -5.16406 
161 0 0 
-0.0197449 2.4668 -5.1875 
157 0 0 
0.0043869 2.48438 -5.22266 
153 0 0 
0.0288544 2.50195 -5.26172 
149 0 0 
0.0536194 2.51758 -5.29297 
144 0 0 
0.0787354 2.5332 -5.32812 
139 0 0 
0.103882 2.54297 -5.34766 
138 0 0 
0.128174 2.5332 -5.32422 
139 0 0 
0.152954 2.5332 -5.32422 
138 0 0 
0.17749 2.5293 -5.32031 
139 0 0 
0.201538 2.52148 -5.30469 
142 0 0 
0.22522 2.50977 -5.28125 
146 0 0 
0.249878 2.51172 -5.28125 
149 0 0 
0.271973 2.49023 -5.23828 
153 0 0 
0.293701 2.46875 -5.19141 
158 0 0 
0.316162 2.45508 -5.16406 
162 0 0 
0.338623 2.44336 -5.14062 
166 0 0 
0.36084 2.43359 -5.11719 
169 0 0 
0.383301 2.42383 -5.09766 
171 0 0 
0.405273 2.41406 -5.07812 
174 0 0 
0.426758 2.40234 -5.05469 
176 0 0 
0.447998 2.39062 -5.02734 
180 0 0 
0.468506 2.375 -4.99609 
184 0 0 
0.488525 2.35938 -4.96484 
189 0 0 
0.508301 2.3457 -4.93359 
193 0 0 
0.529297 2.33594 -4.91406 
197 0 0 
0.550293 2.33008 -4.90234 
199 0 0 
0.573242 2.33008 -4.90234 
199 0 0 
0.597656 2.33594 -4.91406 
198 0 0 
0.622559 2.34375 -4.92969 
196 0 0 
0.647949 2.35352 -4.94922 
191 0 0 
0.672852 2.35938 -4.96094 
191 0 0 
0.696289 2.36133 -4.96875 
191 0 0 
0.719238 2.36133 -4.96484 
191 0 0 
0.741211 2.35742 -4.95703 
192 0 0 
0.762695 2.35156 -4.94922 
193 0 0 
0.78418 2.34766 -4.9375 
194 0 0 
0.806152 2.3457 -4.93359 
194 0 0 
0.828613 2.34375 -4.92969 
195 0 0 
0.851562 2.34375 -4.92969 
195 0 0 
0.874023 2.34375 -4.92578 
195 0 0 
0.894531 2.33594 -4.91406 
197 0 0 
0.911621 2.32227 -4.88281 
202 0 0 
0.924805 2.29883 -4.83203 
209 0 0 
0.933594 2.26562 -4.76172 
218 0 0 
0.939453 2.22656 -4.68359 
229 0 0 
0.943848 2.18555 -4.59766 
241 0 0 
0.948242 2.14844 -4.51953 
251 0 0 
0.955566 2.11719 -4.45312 
254 7 0 
0.965332 2.09375 -4.40234 
254 16 0 
0.978027 2.07617 -4.36719 
254 22 0 
0.992188 2.06445 -4.34375 
254 26 0 
1.00781 2.05469 -4.32422 
254 30 0 
1.02441 2.04688 -4.30859 
254 33 0 
1.04102 2.04297 -4.29297 
254 35 0 
1.05859 2.03711 -4.28516 
254 36 0 
1.07812 2.03516 -4.28125 
254 37 0 
1.09863 2.03711 -4.28516 
254 37 0 
1.12207 2.04492 -4.30078 
254 34 0 
1.14844 2.05664 -4.32422 
254 30 0 
1.18066 2.07617 -4.36719 
254 22 0 
1.2168 2.10547 -4.42578 
254 12 0 
1.25781 2.13867 -4.5 
254 0 0 
1.30078 2.17578 -4.57812 
243 0 0 
1.34277 2.21094 -4.64844 
233 0 0 
1.38086 2.23828 -4.70703 
226 0 0 
1.41504 2.25586 -4.74609 
220 0 0 
1.44531 2.26953 -4.77344 
216 0 0 
1.47363 2.2793 -4.79297 
214 0 0 
1.50098 2.28711 -4.80859 
211 0 0 
1.52832 2.29297 -4.82422 
209 0 0 
1.55469 2.30078 -4.83594 
207 0 0 
1.58203 2.30664 -4.85156 
205 0 0 
1.61133 2.31641 -4.875 
202 0 0 
1.64551 2.33398 -4.90625 
198 0 0 
1.68555 2.35742 -4.95703 
191 0 0 
1.73047 2.38672 -5.01953 
182 0 0 
1.77832 2.41992 -5.08984 
172 0 0 
1.82324 2.44922 -5.15234 
164 0 0 
1.86426 2.47266 -5.19922 
157 0 0 
1.89941 2.48633 -5.22656 
153 0 0 
1.93164 2.49609 -5.25 
150 0 0 
1.96582 2.50977 -5.27734 
147 0 0 
2 2.52344 -5.30469 
140 0 0 
2.03711 2.53711 -5.33594 
140 0 0 
2.07031 2.54688 -5.35547 
137 0 0 
2.09766 2.55078 -5.36328 
137 0 0 
2.11523 2.54297 -5.34766 
139 0 0 
2.12305 2.52344 -5.30469 
145 0 0 
2.11719 2.48633 -5.23047 
155 0 0 
2.0957 2.43359 -5.11719 
170 0 0 
2.05859 2.36328 -4.96875 
190 0 0 
2.01172 2.2832 -4.80469 
213 0 0 
1.96289 2.20312 -4.63281 
236 0 0 
1.91699 2.12891 -4.47656 
254 4 0 
1.87891 2.0625 -4.33984 
254 27 0 
1.84766 2.00781 -4.22266 
254 46 0 
1.82324 1.96094 -4.12109 
254 64 0 
1.80469 1.9209 -4.03906 
254 77 0 
1.79297 1.88867 -3.9707 
254 89 0 
1.78613 1.86133 -3.91602 
254 99 0 
1.78223 1.83887 -3.86719 
254 107 0 
1.78125 1.82031 -3.82812 
254 114 0 
1.7832 1.80469 -3.79492 
254 119 0 
1.78906 1.79199 -3.76953 
254 124 0 
1.79785 1.7832 -3.75 
254 127 0 
1.80957 1.77832 -3.74023 
254 129 0 
1.82422 1.77441 -3.73242 
254 130 0 
1.83984 1.77344 -3.73047 
254 130 0 
1.85645 1.77246 -3.72852 
254 130 0 
1.875 1.77344 -3.73047 
254 130 0 
1.89355 1.77539 -3.73438 
254 129 0 
1.91309 1.77734 -3.73828 
254 128 0 
1.93457 1.78027 -3.74414 
254 127 0 
1.95703 1.78516 -3.75391 
254 125 0 
1.98145 1.79102 -3.76758 
254 123 0 
2.00781 1.7998 -3.78516 
254 120 0 
2.03516 1.80957 -3.80469 
254 117 0 
2.06445 1.81934 -3.82617 
254 113 0 
2.09375 1.8291 -3.8457 
254 109 0 
2.12109 1.83789 -3.86523 
254 106 0 
2.15039 1.84766 -3.88477 
254 103 0 
2.17969 1.85645 -3.9043 
254 100 0 
2.20898 1.86523 -3.92383 
254 96 0 
2.23438 1.87305 -3.9375 
254 94 0 
2.25977 1.87695 -3.94922 
254 92 0 
2.2793 1.87891 -3.95117 
254 91 0 
2.29492 1.87598 -3.94727 
254 92 0 
2.30664 1.87109 -3.93359 
254 94 0 
2.3125 1.8623 -3.91602 
254 97 0 
2.31836 1.85156 -3.89453 
254 101 0 
2.32031 1.83789 -3.86523 
254 106 0 
2.31836 1.82324 -3.83398 
254 112 0 
2.31445 1.80664 -3.79883 
254 118 0 
2.31055 1.78906 -3.76367 
254 124 0 
2.30859 1.77344 -3.73047 
254 130 0 
2.30078 1.75488 -3.69141 
254 140 0 
2.30469 1.74512 -3.66992 
254 140 0 
2.31641 1.74121 -3.66211 
254 142 0 
1.21973 0.872559 -1.83496 
57 254 197 
1.22754 0.871582 -1.83301 
56 254 198 
1.2334 0.870117 -1.83008 
56 254 198 
1.24121 0.869141 -1.82812 
56 254 198 
1.24902 0.868652 -1.82617 
56 254 198 
1.25684 0.868652 -1.82617 
55 254 199 
1.2666 0.869141 -1.82812 
56 254 198 
1.27637 0.870117 -1.83008 
56 254 198 
1.28809 0.87207 -1.83398 
56 254 198 
1.29883 0.874023 -1.83789 
57 254 197 
1.31055 0.875488 -1.8418 
57 254 197 
1.32227 0.87793 -1.84668 
58 254 196 
1.33496 0.880371 -1.85156 
59 254 195 
1.34766 0.883301 -1.85742 
59 254 195 
1.36035 0.885742 -1.8623 
60 254 193 
1.37207 0.887695 -1.86719 
61 254 193 
1.38281 0.889648 -1.87109 
62 254 192 
1.3916 0.889648 -1.87109 
62 254 192 
1.39941 0.888672 -1.86914 
62 254 192 
1.4043 0.88623 -1.86426 
62 254 192 
1.40723 0.882812 -1.85645 
60 254 193 
1.4082 0.87793 -1.84668 
59 254 195 
1.4082 0.873047 -1.83594 
57 254 197 
1.4082 0.867676 -1.82422 
55 254 199 
1.40723 0.861816 -1.8125 
53 254 201 
1.40625 0.855469 -1.7998 
51 254 203 
1.4043 0.849609 -1.78613 
49 254 205 
1.40234 0.843262 -1.77344 
46 254 208 
1.40234 0.838379 -1.76367 
45 254 209 
1.40332 0.833984 -1.75391 
43 254 211 
1.40527 0.830566 -1.74609 
42 254 212 
1.40723 0.827148 -1.73926 
41 254 213 
1.40918 0.823242 -1.73145 
39 254 215 
1.41016 0.819336 -1.72363 
38 254 216 
1.41211 0.81543 -1.71484 
36 254 218 
1.41211 0.811035 -1.70605 
35 254 219 
1.41211 0.807129 -1.69727 
33 254 221 
1.41309 0.802734 -1.68848 
32 254 223 
1.41309 0.79834 -1.67871 
30 254 224 
1.41309 0.793945 -1.66992 
28 254 226 
1.41309 0.789551 -1.66113 
27 254 227 
1.41211 0.785156 -1.65137 
25 254 229 
1.41113 0.780273 -1.64062 
23 254 231 
1.40918 0.774902 -1.62988 
21 254 233 
1.4082 0.77002 -1.62012 
18 254 236 
1.40723 0.765625 -1.60938 
18 254 236 
1.40625 0.760742 -1.59961 
16 254 238 
1.40625 0.756836 -1.5918 
15 254 239 
1.40723 0.753418 -1.58496 
14 254 240 
1.41016 0.750977 -1.58008 
13 254 241 
1.41406 0.749023 -1.5752 
12 254 242 
1.41895 0.747559 -1.57227 
12 254 242 
1.42383 0.746582 -1.57031 
12 254 242 
1.42969 0.746094 -1.56836 
12 254 242 
1.43555 0.745605 -1.56738 
12 254 242 
1.44238 0.745117 -1.56641 
11 254 243 
1.44824 0.744629 -1.56543 
11 254 243 
1.45508 0.744141 -1.56445 
11 254 243 
1.46094 0.743652 -1.56348 
11 254 243 
1.4668 0.742676 -1.56152 
10 254 244 
1.47266 0.742188 -1.56055 
10 254 244 
1.47852 0.741211 -1.55859 
10 254 244 
1.4834 0.740234 -1.55664 
9 254 245 
1.48926 0.739258 -1.55469 
9 254 245 
1.49414 0.738281 -1.55273 
9 254 245 
1.5 0.737305 -1.55078 
8 254 246 
1.50488 0.736328 -1.54883 
8 254 246 
1.50977 0.735352 -1.54688 
8 254 246 
1.5166 0.734863 -1.5459 
7 254 247 
1.52246 0.734375 -1.54492 
7 254 247 
1.5293 0.734375 -1.54492 
7 254 247 
-1.86133 0.958496 -2.03516 
90 254 164 
-1.84375 0.954102 -2.02539 
88 254 166 
-1.82617 0.950195 -2.01758 
87 254 167 
-1.8125 0.947754 -2.01367 
87 254 167 
-1.80273 0.947266 -2.01172 
87 254 167 
-1.79492 0.948242 -2.01367 
87 254 167 
-1.78809 0.949707 -2.01758 
88 254 166 
-1.7832 0.952148 -2.02148 
89 254 165 
-1.7793 0.955078 -2.02734 
90 254 164 
-1.77539 0.958008 -2.0332 
92 254 162 
-1.77148 0.961426 -2.04102 
93 254 161 
-1.76855 0.964355 -2.04883 
95 254 159 
-1.76562 0.968262 -2.05664 
96 254 158 
-1.76172 0.97168 -2.0625 
99 254 155 
-1.75977 0.975586 -2.07031 
99 254 155 
-1.75684 0.979492 -2.08008 
100 254 154 
-1.75391 0.983398 -2.08789 
101 254 153 
-1.75195 0.987793 -2.09766 
102 254 152 
-1.74902 0.991699 -2.10547 
103 254 151 
-1.74707 0.995605 -2.11523 
104 254 150 
-1.74512 1 -2.125 
106 254 148 
-1.74316 1.00488 -2.13477 
107 254 147 
-1.74316 1.01074 -2.14648 
109 254 145 
-1.74219 1.01562 -2.1582 
111 254 143 
-1.74219 1.02148 -2.16992 
113 254 141 
-1.74121 1.02637 -2.17969 
115 254 139 
-1.74023 1.03223 -2.19336 
117 254 137 
-1.73828 1.03711 -2.20312 
119 254 135 
-1.73535 1.04199 -2.21289 
120 254 134 
-1.7334 1.04688 -2.22266 
122 254 132 
-1.73047 1.05078 -2.23242 
123 254 131 
-1.72754 1.05566 -2.24219 
124 254 129 
-1.72559 1.06055 -2.25195 
126 254 128 
-1.72266 1.06543 -2.26367 
128 254 127 
-1.72168 1.07129 -2.27539 
129 254 125 
-1.71973 1.07715 -2.28711 
131 254 123 
-1.71973 1.08301 -2.30078 
132 254 122 
-1.71875 1.08984 -2.31445 
134 254 120 
-1.71875 1.09668 -2.33008 
136 254 118 
-1.71777 1.10254 -2.3418 
138 254 116 
-1.7168 1.10938 -2.35547 
140 254 114 
-1.71484 1.11523 -2.36914 
142 254 112 
-1.71387 1.12207 -2.38281 
145 254 109 
-1.71191 1.12793 -2.39453 
147 254 107 
-1.70996 1.13379 -2.4082 
150 254 104 
-1.70898 1.14062 -2.42188 
153 254 101 
-1.70703 1.14746 -2.4375 
155 254 99 
-1.70605 1.1543 -2.45117 
159 254 96 
-1.7041 1.16016 -2.46484 
161 254 92 
-1.70117 1.16699 -2.47852 
164 254 90 
-1.69824 1.17188 -2.49023 
166 254 88 
-1.69531 1.17773 -2.50195 
168 254 86 
-1.69141 1.18359 -2.51367 
170 254 84 
-1.6875 1.18848 -2.52539 
172 254 82 
-1.68164 1.19336 -2.53516 
173 254 81 
-1.67676 1.19824 -2.54492 
175 254 79 
-1.67188 1.20312 -2.55664 
176 254 78 
-1.66797 1.20898 -2.56641 
178 254 76 
-1.66309 1.21387 -2.58008 
181 254 73 
-1.66016 1.2207 -2.59375 
183 254 71 
-1.65625 1.22754 -2.60547 
186 254 68 
-1.65332 1.2334 -2.62109 
189 254 65 
-1.64941 1.24023 -2.63281 
192 254 62 
-1.64648 1.24707 -2.64844 
195 254 59 
-1.64453 1.25488 -2.66406 
198 254 56 
-1.64355 1.26367 -2.68359 
202 254 52 
-1.64551 1.27441 -2.70703 
210 254 44 
-1.64844 1.28711 -2.73242 
210 254 44 
-1.65137 1.29883 -2.75977 
214 254 40 
-1.65332 1.31152 -2.78516 
219 254 35 
-1.65527 1.32227 -2.80859 
223 254 32 
-1.65527 1.33301 -2.83203 
226 254 28 
-1.6543 1.34375 -2.85352 
230 254 24 
-1.65234 1.35254 -2.87305 
233 254 21 
-1.65039 1.3623 -2.89258 
237 254 17 
-1.64844 1.37109 -2.91211 
240 254 14 
-1.64551 1.37988 -2.93164 
243 254 11 
-1.6416 1.38867 -2.94922 
246 254 8 
-1.63672 1.39648 -2.96484 
249 254 5 
-1.63184 1.4043 -2.98242 
251 254 3 
-1.62598 1.41113 -2.99609 
254 254 1 
-1.62109 1.41895 -3.01367 
254 252 0 
-1.61621 1.42676 -3.03125 
254 249 0 
-1.61328 1.43652 -3.05078 
254 246 0 
-1.61133 1.44727 -3.07422 
254 242 0 
-1.60938 1.45898 -3.09766 
254 238 0 
-1.60742 1.46973 -3.12305 
254 234 0 
-1.60449 1.48047 -3.14453 
254 230 0 
-1.60059 1.49121 -3.16602 
254 226 0 
-1.5957 1.5 -3.18555 
254 223 0 
-1.59082 1.50977 -3.20508 
254 219 0 
-1.58594 1.51855 -3.22656 
254 216 0 
-1.58105 1.5293 -3.24805 
254 212 0 
-1.57812 1.54004 -3.27148 
254 208 0 
-1.57422 1.55176 -3.29492 
254 204 0 
-1.56934 1.56152 -3.31641 
254 200 0 
-1.5625 1.57129 -3.33789 
254 197 0 
-1.55566 1.58008 -3.35547 
254 193 0 
-1.54785 1.58789 -3.37305 
254 191 0 
-1.54004 1.5957 -3.38867 
254 188 0 
-1.53125 1.60352 -3.40625 
254 185 0 
-1.52344 1.6123 -3.42383 
254 182 0 
-1.51562 1.62012 -3.44141 
254 179 0 
-1.50684 1.62793 -3.45898 
254 176 0 
-1.49902 1.6377 -3.47852 
254 173 0 
-1.49121 1.64551 -3.49609 
254 170 0 
-1.48242 1.6543 -3.51367 
254 167 0 
-1.47266 1.66113 -3.5293 
254 164 0 
-1.46191 1.66895 -3.54297 
254 162 0 
-1.45215 1.67578 -3.55859 
254 159 0 
-1.44141 1.68262 -3.57227 
254 157 0 
-1.43066 1.68945 -3.58789 
254 154 0 
-1.41895 1.69531 -3.60156 
254 152 0 
-1.40723 1.70215 -3.61523 
254 149 0 
-1.39648 1.70898 -3.62891 
254 147 0 
-1.38477 1.71582 -3.64258 
254 144 0 
-1.37305 1.72266 -3.6582 
254 142 0 
-1.3623 1.73047 -3.67383 
254 139 0 
-1.35156 1.7373 -3.69141 
254 136 0 
-1.33984 1.74609 -3.70703 
254 130 0 
-1.3291 1.75391 -3.72461 
254 130 0 
-1.31836 1.7627 -3.74414 
254 127 0 
-1.30762 1.77148 -3.76367 
254 124 0 
-1.29688 1.78125 -3.7832 
254 120 0 
-1.28613 1.79004 -3.80273 
254 117 0 
-1.27539 1.7998 -3.82227 
254 114 0 
-1.26367 1.80859 -3.8418 
254 110 0 
-1.25293 1.81836 -3.86133 
254 107 0 
-1.24023 1.82715 -3.88086 
254 104 0 
-1.22852 1.83594 -3.90039 
254 101 0 
-1.2168 1.8457 -3.91992 
254 98 0 
-1.20312 1.85352 -3.93555 
254 95 0 
-1.19043 1.86133 -3.95312 
254 92 0 
-1.17676 1.86816 -3.96875 
254 90 0 
-1.16211 1.875 -3.98242 
254 88 0 
-1.14746 1.88086 -3.99609 
254 86 0 
-1.13281 1.8877 -4.00781 
254 83 0 
-1.11719 1.89453 -4.02344 
254 81 0 
-1.10352 1.90137 -4.03906 
254 79 0 
-1.08984 1.91016 -4.05469 
254 76 0 
-1.0752 1.91895 -4.07422 
254 72 0 
-1.0625 1.92969 -4.09766 
254 69 0 
-1.04883 1.94043 -4.12109 
254 65 0 
-1.03613 1.95215 -4.14453 
254 61 0 
-1.02246 1.96191 -4.16797 
254 57 0 
-1.00781 1.97168 -4.1875 
254 53 0 
-0.992676 1.98047 -4.20312 
254 50 0 
-0.976562 1.98633 -4.21875 
254 48 0 
-0.958984 1.99121 -4.23047 
254 46 0 
-0.941406 1.99512 -4.23828 
254 44 0 
-0.92334 1.99805 -4.24219 
254 43 0 
-0.904297 2 -4.25 
254 42 0 
-0.885742 2.00195 -4.25391 
254 42 0 
-0.866699 2.00391 -4.25781 
254 41 0 
-0.848145 2.00781 -4.26172 
254 40 0 
-0.829102 2.00977 -4.26953 
254 39 0 
-0.810547 2.01172 -4.27344 
254 38 0 
-0.791504 2.01367 -4.27734 
254 37 0 
-0.772461 2.01562 -4.28125 
254 36 0 
-0.753906 2.01953 -4.28906 
254 35 0 
-0.734863 2.02344 -4.29688 
254 34 0 
-0.716797 2.02734 -4.30859 
254 32 0 
-0.698242 2.0332 -4.31641 
254 30 0 
-0.680176 2.03711 -4.32812 
254 28 0 
-0.661621 2.04297 -4.33984 
254 26 0 
-0.643066 2.04883 -4.35156 
254 24 0 
-0.624512 2.05469 -4.36328 
254 21 0 
-0.605957 2.06055 -4.375 
254 19 0 
-0.587891 2.06641 -4.39062 
254 15 0 
-0.569824 2.07617 -4.41016 
254 12 0 
-0.551758 2.08594 -4.42969 
254 8 0 
-0.53418 2.09766 -4.45312 
254 3 0 
-0.516602 2.10938 -4.48047 
249 0 0 
-0.499023 2.12305 -4.50781 
249 0 0 
-0.480957 2.13672 -4.53516 
246 0 0 
-0.462646 2.14844 -4.5625 
243 0 0 
-0.443604 2.16016 -4.58594 
240 0 0 
-0.424316 2.16992 -4.60938 
237 0 0 
-0.404785 2.17969 -4.62891 
235 0 0 
-0.38501 2.18945 -4.64844 
232 0 0 
-0.364746 2.19922 -4.66797 
230 0 0 
-0.344727 2.20898 -4.69141 
227 0 0 
-0.324219 2.21875 -4.71094 
225 0 0 
-0.303711 2.22656 -4.73047 
222 0 0 
-0.282959 2.23633 -4.75 
220 0 0 
-0.261719 2.24414 -4.76953 
217 0 0 
-0.240601 2.25391 -4.78516 
214 0 0 
-0.219238 2.26172 -4.80469 
211 0 0 
-0.197632 2.27148 -4.82422 
208 0 0 
-0.175903 2.2793 -4.84375 
205 0 0 
-0.154053 2.29102 -4.86328 
202 0 0 
-0.13208 2.30078 -4.88672 
199 0 0 
-0.109924 2.3125 -4.91016 
195 0 0 
-0.0875854 2.32422 -4.9375 
192 0 0 
-0.0650024 2.33789 -4.96484 
188 0 0 
-0.0422058 2.35156 -4.99609 
184 0 0 
-0.0191193 2.36523 -5.02344 
180 0 0 
0.00424957 2.38281 -5.05859 
175 0 0 
0.0279541 2.40039 -5.09766 
171 0 0 
0.0519714 2.41602 -5.13281 
166 0 0 
0.0762939 2.43164 -5.16406 
161 0 0 
0.100769 2.44141 -5.1875 
159 0 0 
0.124817 2.44141 -5.18359 
158 0 0 
0.149048 2.44336 -5.19141 
157 0 0 
0.173096 2.44141 -5.1875 
158 0 0 
0.196655 2.4375 -5.17578 
160 0 0 
0.219849 2.42578 -5.15234 
163 0 0 
0.243286 2.42188 -5.14453 
167 0 0 
0.265381 2.40625 -5.10938 
170 0 0 
0.287109 2.39062 -5.07422 
175 0 0 
0.309814 2.38086 -5.05859 
177 0 0 
0.332275 2.375 -5.04297 
179 0 0 
0.355225 2.37109 -5.03516 
180 0 0 
0.378174 2.36719 -5.03125 
181 0 0 
0.400635 2.36328 -5.01953 
182 0 0 
0.422852 2.35742 -5.00781 
183 0 0 
0.444336 2.34766 -4.98438 
186 0 0 
0.465088 2.33594 -4.96094 
190 0 0 
0.485107 2.32227 -4.92969 
194 0 0 
0.505371 2.30859 -4.90625 
198 0 0 
0.526367 2.30078 -4.88672 
200 0 0 
0.547852 2.29688 -4.87891 
202 0 0 
0.571289 2.29883 -4.88281 
202 0 0 
0.595215 2.30469 -4.89453 
200 0 0 
0.620605 2.31445 -4.91406 
198 0 0 
0.645996 2.32227 -4.93359 
193 0 0 
0.670898 2.33008 -4.94922 
193 0 0 
0.695312 2.33398 -4.95703 
192 0 0 
0.718262 2.33594 -4.96094 
192 0 0 
0.740723 2.33203 -4.95312 
192 0 0 
0.762207 2.32812 -4.94531 
193 0 0 
0.783691 2.32422 -4.9375 
194 0 0 
0.805664 2.32031 -4.92969 
195 0 0 
0.827637 2.31836 -4.92578 
195 0 0 
0.850098 2.31641 -4.92188 
196 0 0 
0.871582 2.3125 -4.91406 
197 0 0 
0.890625 2.30273 -4.89062 
200 0 0 
0.906738 2.28711 -4.85547 
205 0 0 
0.918945 2.26172 -4.80078 
213 0 0 
0.927246 2.22656 -4.73047 
223 0 0 
0.933105 2.18945 -4.64844 
233 0 0 
0.937988 2.15039 -4.57031 
244 0 0 
0.943848 2.11719 -4.49609 
254 0 0 
0.952148 2.08984 -4.4375 
254 10 0 
0.963379 2.07031 -4.39453 
254 17 0 
0.976562 2.05469 -4.36328 
254 23 0 
0.992188 2.04297 -4.33984 
254 27 0 
1.00781 2.03516 -4.32422 
254 30 0 
1.02539 2.0293 -4.3125 
254 32 0 
1.04199 2.02539 -4.30078 
254 34 0 
1.06055 2.02148 -4.29297 
254 35 0 
1.0791 2.01953 -4.28906 
254 36 0 
1.10059 2.02148 -4.29297 
254 35 0 
1.125 2.0293 -4.30859 
254 32 0 
1.15234 2.04297 -4.33984 
254 27 0 
1.18555 2.06445 -4.38672 
254 19 0 
1.22266 2.09375 -4.44531 
254 9 0 
1.26367 2.12891 -4.51953 
251 0 0 
1.30664 2.16406 -4.59766 
240 0 0 
1.34863 2.19727 -4.66797 
231 0 0 
1.38574 2.22266 -4.71875 
224 0 0 
1.41797 2.24023 -4.75781 
219 0 0 
1.44824 2.25195 -4.78125 
215 0 0 
1.47559 2.25977 -4.80078 
213 0 0 
1.50293 2.26758 -4.81641 
211 0 0 
1.5293 2.27344 -4.82812 
209 0 0 
1.55664 2.2793 -4.84375 
207 0 0 
1.58398 2.28711 -4.85938 
204 0 0 
1.61523 2.29883 -4.88281 
201 0 0 
1.65039 2.31641 -4.92188 
196 0 0 
1.69141 2.3418 -4.97266 
189 0 0 
1.7373 2.37305 -5.03906 
179 0 0 
1.78516 2.40625 -5.10938 
170 0 0 
1.83008 2.43359 -5.17188 
161 0 0 
1.86914 2.45508 -5.21094 
156 0 0 
1.90332 2.4668 -5.24219 
152 0 0 
1.93555 2.47852 -5.26172 
149 0 0 
1.96973 2.48828 -5.28516 
146 0 0 
2.00391 2.50195 -5.3125 
139 0 0 
2.03711 2.51367 -5.33594 
139 0 0 
2.06836 2.51953 -5.35156 
138 0 0 
2.0918 2.51953 -5.35156 
138 0 0 
2.10742 2.50781 -5.32812 
141 0 0 
2.11133 2.48438 -5.27344 
148 0 0 
2.10156 2.44336 -5.1875 
160 0 0 
2.07422 2.38477 -5.06641 
177 0 0 
2.03516 2.3125 -4.91016 
198 0 0 
1.98633 2.23242 -4.74219 
221 0 0 
1.9375 2.15234 -4.57422 
244 0 0 
1.89258 2.08008 -4.41797 
254 13 0 
1.85645 2.01758 -4.28516 
254 35 0 
1.82715 1.9668 -4.17578 
254 54 0 
1.80566 1.92285 -4.08203 
254 70 0 
1.79004 1.88672 -4.00391 
254 83 0 
1.78027 1.85645 -3.94336 
254 94 0 
1.77441 1.83203 -3.89062 
254 103 0 
1.77246 1.81152 -3.84766 
254 111 0 
1.77246 1.79297 -3.80859 
254 117 0 
1.77539 1.77832 -3.77734 
254 122 0 
1.78223 1.76758 -3.75391 
254 126 0 
1.79102 1.75977 -3.73633 
254 129 0 
1.80371 1.75488 -3.72656 
254 131 0 
1.81836 1.75195 -3.7207 
254 132 0 
1.83398 1.75098 -3.71875 
254 132 0 
1.85156 1.75098 -3.71875 
254 132 0 
1.87012 1.75195 -3.7207 
254 132 0 
1.88867 1.75293 -3.72266 
254 131 0 
1.9082 1.75488 -3.72852 
254 130 0 
1.92871 1.75781 -3.73438 
254 129 0 
1.95117 1.7627 -3.74414 
254 127 0 
1.97461 1.76855 -3.75586 
254 125 0 
2 1.77637 -3.77344 
254 122 0 
2.02734 1.78516 -3.79102 
254 119 0 
2.05664 1.79395 -3.81055 
254 116 0 
2.08398 1.80371 -3.83008 
254 112 0 
2.11328 1.8125 -3.84961 
254 109 0 
2.14258 1.82227 -3.87109 
254 106 0 
2.17188 1.83105 -3.88867 
254 102 0 
2.19922 1.83984 -3.9082 
254 99 0 
2.22852 1.84863 -3.92578 
254 96 0 
2.25195 1.85352 -3.93555 
254 95 0 
2.27344 1.85547 -3.93945 
254 94 0 
2.28906 1.85352 -3.93555 
254 95 0 
2.30078 1.84961 -3.92773 
254 96 0 
2.31055 1.8418 -3.91211 
254 99 0 
2.31641 1.83203 -3.89062 
254 102 0 
2.32031 1.82031 -3.86719 
254 106 0 
2.32031 1.80664 -3.83789 
254 112 0 
2.31836 1.79102 -3.80469 
254 117 0 
2.31641 1.77539 -3.77148 
254 123 0 
2.31445 1.76074 -3.74023 
254 129 0 
2.29883 1.73633 -3.6875 
254 143 0 
2.29883 1.72363 -3.66211 
254 143 0 
1.20801 0.867676 -1.84277 
58 254 196 
1.21582 0.866699 -1.84082 
58 254 196 
1.2207 0.864258 -1.83594 
57 254 197 
1.22754 0.862793 -1.83301 
57 254 197 
1.23438 0.861816 -1.83105 
56 254 198 
1.24219 0.861328 -1.83008 
56 254 198 
1.25098 0.861328 -1.83008 
56 254 198 
1.25977 0.861816 -1.83105 
56 254 198 
1.26953 0.862793 -1.83301 
56 254 198 
1.28027 0.864258 -1.83594 
57 254 197 
1.29297 0.866699 -1.84082 
57 254 197 
1.30469 0.869141 -1.8457 
58 254 196 
1.31641 0.871094 -1.84961 
59 254 195 
1.3291 0.873535 -1.85547 
59 254 195 
1.34082 0.875977 -1.86035 
60 254 194 
1.35352 0.878418 -1.86621 
61 254 193 
1.36523 0.880371 -1.87012 
61 254 192 
1.37695 0.882324 -1.87402 
62 254 192 
1.3877 0.883789 -1.87695 
63 254 191 
1.39551 0.883301 -1.87598 
63 254 191 
1.40234 0.881836 -1.87305 
63 254 191 
1.40527 0.878418 -1.86621 
62 254 192 
1.40723 0.874023 -1.85645 
60 254 193 
1.4082 0.869629 -1.84668 
59 254 195 
1.4082 0.864258 -1.83594 
57 254 197 
1.4082 0.858398 -1.82324 
55 254 199 
1.40723 0.853027 -1.81152 
53 254 201 
1.40527 0.84668 -1.79883 
51 254 203 
1.40332 0.84082 -1.78516 
49 254 205 
1.40234 0.834961 -1.77344 
46 254 208 
1.40137 0.82959 -1.7627 
45 254 209 
1.40332 0.826172 -1.75391 
43 254 211 
1.40527 0.822266 -1.74609 
42 254 212 
1.40723 0.818848 -1.73926 
41 254 213 
1.40918 0.814941 -1.73145 
39 254 215 
1.41016 0.811523 -1.72363 
38 254 216 
1.41113 0.807129 -1.71387 
36 254 218 
1.41016 0.802246 -1.7041 
35 254 220 
1.41113 0.79834 -1.69531 
33 254 221 
1.41016 0.793457 -1.68555 
31 254 223 
1.41016 0.788574 -1.6748 
29 254 225 
1.40918 0.78418 -1.66504 
28 254 226 
1.4082 0.779297 -1.65527 
26 254 228 
1.40723 0.774414 -1.64453 
24 254 230 
1.40625 0.769531 -1.63477 
22 254 232 
1.40527 0.765137 -1.625 
21 254 233 
1.40527 0.760742 -1.61621 
18 254 236 
1.4043 0.756348 -1.60645 
18 254 236 
1.40625 0.753418 -1.59961 
16 254 238 
1.40723 0.75 -1.59277 
15 254 239 
1.41016 0.747559 -1.58789 
14 254 240 
1.41406 0.745605 -1.58398 
14 254 240 
1.41895 0.744141 -1.58105 
13 254 241 
1.42383 0.743164 -1.5791 
13 254 241 
1.42969 0.742188 -1.57715 
13 254 241 
1.43457 0.741211 -1.57422 
13 254 241 
1.44141 0.740723 -1.57324 
13 254 241 
1.44824 0.740234 -1.57227 
12 254 242 
1.45312 0.739746 -1.57031 
12 254 242 
1.45996 0.739258 -1.56934 
12 254 242 
1.46484 0.738281 -1.56738 
11 254 243 
1.47168 0.737793 -1.56641 
11 254 243 
1.47656 0.736816 -1.56445 
11 254 243 
1.48145 0.735352 -1.56152 
10 254 244 
1.48633 0.734375 -1.55957 
10 254 244 
1.49219 0.733398 -1.55762 
9 254 245 
1.49707 0.732422 -1.55566 
9 254 245 
1.50293 0.731445 -1.55371 
9 254 245 
1.50781 0.730469 -1.55176 
8 254 246 
1.51367 0.72998 -1.55078 
8 254 246 
1.52051 0.729492 -1.5498 
8 254 246 
1.52637 0.729004 -1.54883 
8 254 246 
1.5332 0.729004 -1.54883 
8 254 246 
-1.9248 0.971191 -2.08398 
99 254 155 
-1.88965 0.958496 -2.05664 
94 254 160 
-1.86523 0.951172 -2.03906 
91 254 163 
-1.84668 0.946777 -2.0293 
89 254 165 
-1.8291 0.942383 -2.02148 
88 254 166 
-1.81543 0.939941 -2.01562 
87 254 167 
-1.80371 0.938477 -2.01367 
87 254 167 
-1.79492 0.938965 -2.01367 
87 254 167 
-1.78809 0.94043 -2.01758 
88 254 166 
-1.7832 0.942871 -2.02148 
89 254 165 
-1.77832 0.945312 -2.02734 
90 254 164 
-1.77539 0.948242 -2.0332 
91 254 163 
-1.77148 0.95166 -2.04102 
93 254 161 
-1.76855 0.955078 -2.04883 
95 254 159 
-1.76562 0.958496 -2.05664 
96 254 158 
-1.7627 0.962402 -2.06445 
99 254 155 
-1.75977 0.966309 -2.07227 
99 254 155 
-1.75684 0.970215 -2.08008 
100 254 154 
-1.75488 0.974121 -2.08984 
101 254 153 
-1.75195 0.978027 -2.09766 
102 254 152 
-1.75 0.981934 -2.10547 
103 254 151 
-1.74805 0.986816 -2.11719 
105 254 149 
-1.74805 0.992188 -2.12695 
106 254 148 
-1.74707 0.99707 -2.13867 
108 254 146 
-1.74707 1.00293 -2.15039 
110 254 144 
-1.74609 1.00781 -2.16211 
112 254 142 
-1.74707 1.01465 -2.17578 
114 254 140 
-1.74512 1.01953 -2.1875 
116 254 138 
-1.74414 1.02441 -2.19727 
117 254 137 
-1.74219 1.0293 -2.20703 
119 254 135 
-1.73828 1.0332 -2.2168 
121 254 133 
-1.73633 1.03809 -2.22656 
122 254 132 
-1.73242 1.04199 -2.23633 
123 254 131 
-1.73047 1.04688 -2.24609 
125 254 129 
-1.72754 1.05176 -2.25586 
127 254 128 
-1.72559 1.05664 -2.26758 
128 254 126 
-1.72363 1.06152 -2.27734 
129 254 125 
-1.72168 1.06738 -2.28906 
131 254 123 
-1.71973 1.07324 -2.30273 
132 254 122 
-1.71875 1.0791 -2.31445 
134 254 120 
-1.71777 1.08496 -2.32812 
136 254 118 
-1.7168 1.0918 -2.3418 
137 254 117 
-1.71582 1.09766 -2.35547 
140 254 114 
-1.71484 1.10449 -2.36914 
142 254 112 
-1.71387 1.11035 -2.38281 
145 254 109 
-1.71191 1.11621 -2.39453 
147 254 107 
-1.70996 1.12305 -2.4082 
150 254 104 
-1.70898 1.12891 -2.42188 
153 254 101 
-1.70703 1.13574 -2.43555 
155 254 99 
-1.70508 1.1416 -2.44922 
159 254 96 
-1.70312 1.14844 -2.46289 
161 254 93 
-1.69922 1.15332 -2.47461 
164 254 90 
-1.69629 1.15918 -2.48633 
166 254 88 
-1.69238 1.16504 -2.49805 
168 254 86 
-1.68945 1.1709 -2.51172 
170 254 84 
-1.68457 1.17578 -2.52148 
172 254 82 
-1.67969 1.18066 -2.53125 
173 254 81 
-1.6748 1.18457 -2.54102 
175 254 79 
-1.66992 1.19043 -2.55273 
177 254 77 
-1.66602 1.19531 -2.56445 
178 254 76 
-1.66211 1.20117 -2.57617 
181 254 73 
-1.6582 1.20703 -2.58984 
183 254 71 
-1.65527 1.21387 -2.60352 
186 254 68 
-1.65137 1.21973 -2.61719 
189 254 65 
-1.64746 1.22656 -2.63086 
191 254 62 
-1.64355 1.23242 -2.64453 
194 254 60 
-1.6416 1.24023 -2.66016 
197 254 57 
-1.64062 1.24902 -2.67773 
201 254 53 
-1.64062 1.25879 -2.69922 
208 254 46 
-1.6416 1.26953 -2.72266 
208 254 46 
-1.64355 1.28027 -2.74609 
212 254 42 
-1.64453 1.29102 -2.76953 
216 254 38 
-1.64453 1.30078 -2.79102 
219 254 35 
-1.64355 1.31055 -2.81055 
223 254 31 
-1.64062 1.31934 -2.83008 
226 254 28 
-1.63867 1.32812 -2.84766 
229 254 25 
-1.63574 1.33594 -2.86719 
232 254 22 
-1.63184 1.34473 -2.88477 
235 254 19 
-1.62891 1.35254 -2.90039 
238 254 16 
-1.62402 1.36035 -2.91797 
241 254 13 
-1.62012 1.36816 -2.93359 
243 254 11 
-1.61426 1.375 -2.94922 
246 254 8 
-1.6084 1.38184 -2.96484 
248 254 6 
-1.60352 1.38867 -2.98047 
250 254 4 
-1.59766 1.39648 -2.99609 
253 254 1 
-1.59375 1.40527 -3.01367 
254 252 0 
-1.58984 1.41406 -3.0332 
254 249 0 
-1.58789 1.4248 -3.05664 
254 245 0 
-1.58398 1.43457 -3.07617 
254 241 0 
-1.5791 1.44336 -3.0957 
254 238 0 
-1.57422 1.45215 -3.11328 
254 235 0 
-1.56836 1.45996 -3.13086 
254 232 0 
-1.56152 1.4668 -3.14648 
254 229 0 
-1.55469 1.47461 -3.16211 
254 226 0 
-1.54785 1.48242 -3.17969 
254 223 0 
-1.54199 1.49023 -3.19727 
254 220 0 
-1.53516 1.49902 -3.21484 
254 217 0 
-1.52832 1.50684 -3.23242 
254 214 0 
-1.52148 1.51465 -3.24805 
254 211 0 
-1.51367 1.52148 -3.26367 
254 209 0 
-1.50488 1.52832 -3.2793 
254 206 0 
-1.49707 1.53613 -3.29492 
254 203 0 
-1.48926 1.54395 -3.31055 
254 201 0 
-1.48047 1.55078 -3.32617 
254 198 0 
-1.47363 1.55957 -3.3457 
254 195 0 
-1.46582 1.56738 -3.36328 
254 192 0 
-1.45801 1.57617 -3.38086 
254 189 0 
-1.44922 1.58398 -3.39844 
254 186 0 
-1.44043 1.5918 -3.41602 
254 183 0 
-1.43164 1.59961 -3.43164 
254 181 0 
-1.42188 1.60645 -3.44727 
254 178 0 
-1.41211 1.61328 -3.46094 
254 176 0 
-1.40137 1.62012 -3.47656 
254 173 0 
-1.3916 1.62695 -3.49023 
254 171 0 
-1.37988 1.63281 -3.50195 
254 169 0 
-1.36914 1.63867 -3.51562 
254 166 0 
-1.3584 1.64551 -3.5293 
254 164 0 
-1.34668 1.65137 -3.54297 
254 161 0 
-1.33594 1.6582 -3.55859 
254 159 0 
-1.32422 1.66504 -3.57227 
254 156 0 
-1.31348 1.67285 -3.58789 
254 154 0 
-1.30273 1.68066 -3.60352 
254 148 0 
-1.29199 1.68848 -3.62109 
254 148 0 
-1.28125 1.69629 -3.63867 
254 145 0 
-1.27148 1.70508 -3.6582 
254 141 0 
-1.26074 1.71387 -3.67578 
254 138 0 
-1.25 1.72363 -3.69727 
254 135 0 
-1.24023 1.73242 -3.7168 
254 131 0 
-1.22949 1.74219 -3.73633 
254 128 0 
-1.21777 1.75098 -3.75586 
254 125 0 
-1.20703 1.75977 -3.77539 
254 122 0 
-1.19531 1.76855 -3.79297 
254 119 0 
-1.18262 1.77734 -3.8125 
254 116 0 
-1.1709 1.78516 -3.82812 
254 113 0 
-1.15723 1.79297 -3.8457 
254 111 0 
-1.14355 1.79883 -3.85938 
254 108 0 
-1.12988 1.80566 -3.87305 
254 106 0 
-1.11621 1.81152 -3.88672 
254 104 0 
-1.10156 1.81738 -3.89844 
254 102 0 
-1.08691 1.82422 -3.91406 
254 99 0 
-1.07324 1.83105 -3.92773 
254 97 0 
-1.05957 1.83887 -3.94531 
254 94 0 
-1.0459 1.84766 -3.96289 
254 91 0 
-1.0332 1.85742 -3.98438 
254 88 0 
-1.01953 1.86719 -4.00391 
254 84 0 
-1.00684 1.87793 -4.02734 
254 80 0 
-0.993652 1.8877 -4.05078 
254 77 0 
-0.979492 1.89648 -4.06641 
254 73 0 
-0.964355 1.9043 -4.08594 
254 70 0 
-0.948242 1.91016 -4.09766 
254 68 0 
-0.931641 1.91504 -4.10547 
254 67 0 
-0.914062 1.91797 -4.11328 
254 66 0 
-0.895996 1.91992 -4.11719 
254 64 0 
-0.877441 1.92188 -4.12109 
254 64 0 
-0.858887 1.92383 -4.125 
254 64 0 
-0.84082 1.92578 -4.12891 
254 63 0 
-0.822266 1.92773 -4.13281 
254 62 0 
-0.803711 1.92871 -4.13672 
254 61 0 
-0.785645 1.93164 -4.14062 
254 60 0 
-0.76709 1.93359 -4.14453 
254 60 0 
-0.748535 1.93555 -4.14844 
254 59 0 
-0.730469 1.93848 -4.15625 
254 58 0 
-0.712402 1.94141 -4.16406 
254 57 0 
-0.694336 1.94531 -4.17188 
254 56 0 
-0.67627 1.9502 -4.17969 
254 54 0 
-0.658691 1.95508 -4.19141 
254 52 0 
-0.641113 1.96094 -4.20312 
254 50 0 
-0.623047 1.96582 -4.21484 
254 48 0 
-0.605469 1.97168 -4.22656 
254 45 0 
-0.587402 1.97754 -4.24219 
254 42 0 
-0.569824 1.98438 -4.25391 
254 39 0 
-0.552246 1.99219 -4.27344 
254 35 0 
-0.534668 2.00195 -4.29297 
254 32 0 
-0.517578 2.01172 -4.31641 
254 27 0 
-0.500488 2.02344 -4.33984 
254 19 0 
-0.483398 2.03516 -4.36719 
254 19 0 
-0.46582 2.04883 -4.39453 
254 15 0 
-0.447754 2.05859 -4.41797 
254 11 0 
-0.429443 2.07031 -4.44141 
254 8 0 
-0.410645 2.08008 -4.46094 
254 5 0 
-0.391602 2.08789 -4.48047 
254 2 0 
-0.372314 2.09766 -4.5 
253 0 0 
-0.353027 2.10547 -4.51562 
251 0 0 
-0.333252 2.11328 -4.53516 
249 0 0 
-0.313477 2.12305 -4.55469 
246 0 0 
-0.293457 2.13086 -4.57031 
244 0 0 
-0.273193 2.13867 -4.58594 
242 0 0 
-0.252686 2.14453 -4.60156 
240 0 0 
-0.232178 2.15234 -4.61719 
237 0 0 
-0.211426 2.16016 -4.63672 
235 0 0 
-0.190674 2.16992 -4.65234 
232 0 0 
-0.169678 2.17773 -4.67188 
229 0 0 
-0.148682 2.1875 -4.69531 
226 0 0 
-0.127563 2.19922 -4.71875 
222 0 0 
-0.106201 2.21094 -4.74219 
219 0 0 
-0.0846558 2.22461 -4.77344 
215 0 0 
-0.0628662 2.23828 -4.80469 
211 0 0 
-0.040863 2.25391 -4.83203 
206 0 0 
-0.0185242 2.26758 -4.86719 
202 0 0 
0.00411606 2.28516 -4.89844 
198 0 0 
0.0270691 2.30078 -4.93359 
193 0 0 
0.050354 2.31641 -4.96875 
189 0 0 
0.0738525 2.33008 -5 
184 0 0 
0.0975342 2.3418 -5.02344 
181 0 0 
0.121094 2.3457 -5.03125 
179 0 0 
0.144775 2.34961 -5.03906 
178 0 0 
0.168213 2.35156 -5.04297 
178 0 0 
0.191406 2.34766 -5.03516 
179 0 0 
0.214355 2.3418 -5.02344 
182 0 0 
0.237305 2.33789 -5.01562 
184 0 0 
0.259277 2.32812 -4.99219 
186 0 0 
0.281494 2.32031 -4.97656 
189 0 0 
0.304199 2.31641 -4.96875 
190 0 0 
0.326904 2.31445 -4.96484 
191 0 0 
0.350098 2.31445 -4.96484 
190 0 0 
0.373291 2.31445 -4.96484 
190 0 0 
0.39624 2.31445 -4.96484 
190 0 0 
0.418457 2.31055 -4.95703 
191 0 0 
0.440186 2.30273 -4.9375 
193 0 0 
0.460938 2.29102 -4.91797 
196 0 0 
0.481445 2.28125 -4.89062 
199 0 0 
0.501953 2.26953 -4.87109 
203 0 0 
